# .PCD v0.7 - Point Cloud Data file format
VERSION 0.7
FIELDS x y z intensity ring
SIZE 4 4 4 4 2
TYPE F F F F U
COUNT 1 1 1 1 1
WIDTH 180
HEIGHT 1
VIEWPOINT 0 0 0 1 0 0 0
POINTS 180
DATA ascii
-0.117896 3.498642 0.306265 0 5
-1.474158 3.1729031 0.30609101 0 5
-0.133084 3.496104 0.30609101 0 5
-1.454206 3.173332 0.30539399 0 5
-0.112881 3.4948211 0.30591699 0 5
-1.458617 3.162533 0.30469599 0 5
-0.120399 3.4826081 0.30487099 0 5
-1.4530931 3.1782241 0.305742 0 5
-0.111789 3.498843 0.306265 0 5
-1.457528 3.171808 0.30539399 0 5
-0.092501998 3.4859869 0.18275701 0 3
-1.459247 3.1408091 0.181501 0 3
-0.108257 3.4835351 0.182652 0 3
-1.471485 3.152735 0.182338 0 3
-0.112835 3.493382 0.183176 0 3
-1.454653 3.153939 0.182024 0 3
-0.096427999 3.4958711 0.183281 0 3
-1.46536 3.146776 0.18192001 0 3
-0.111105 3.4774511 0.182338 0 3
-1.448581 3.152338 0.181815 0 3
-0.089000002 3.3540211 -0.65218502 0 4
-1.43577 3.0346529 -0.65256703 0 4
-0.080851004 3.3561909 -0.65256703 0 4
-1.427898 3.005795 -0.64684302 0 4
-0.084903002 3.3541269 -0.65218502 0 4
-1.446775 3.02507 -0.65180302 0 4
-0.069540001 3.376081 -0.65638298 0 4
-1.435053 3.026304 -0.65104002 0 4
-0.082365997 3.3463349 -0.65065902 0 4
-1.439172 3.0199981 -0.65027702 0 4
-1.468244 3.081003 -0.29859599 0 10
-1.11755 3.1593699 -0.293192 0 10
-0.93833202 3.2109261 -0.292669 0 10
-0.62187302 3.284883 -0.29249501 0 10
-0.43962201 3.330277 -0.29388899 0 10
-0.090162002 3.39782 -0.29737499 0 10
-1.433862 3.0861721 -0.29772401 0 10
-1.100813 3.1399159 -0.2911 0 10
-0.92880797 3.2116189 -0.29249501 0 10
-0.634112 3.274425 -0.29179701 0 10
-0.40860099 3.3422539 -0.294586 0 10
-1.463622 3.0809951 -0.298421 0 10
-1.111703 3.1550951 -0.292669 0 10
-0.91197902 3.216439 -0.29249501 0 10
-0.63792002 3.2696259 -0.29144901 0 10
-0.437428 3.3406129 -0.294761 0 10
-0.086566001 3.419837 -0.29929301 0 10
-1.445083 3.0765309 -0.29737499 0 10
-1.116743 3.1448591 -0.29197201 0 10
-0.92475402 3.2335169 -0.294238 0 10
-0.62138802 3.2667241 -0.29092601 0 10
-0.42134601 3.3446879 -0.29493499 0 10
-0.093994997 3.4076819 -0.29824701 0 10
-1.434031 3.0795009 -0.29720101 0 10
-1.1113729 3.159436 -0.29301801 0 10
-0.93716198 3.2299421 -0.294238 0 10
-0.636778 3.2759371 -0.29197201 0 10
-0.409623 3.336107 -0.294063 0 10
-0.083784997 3.4039619 -0.29789799 0 10
-1.468244 3.081003 -0.29859599 0 10
-1.11755 3.1593699 -0.293192 0 10
-0.93833202 3.2109261 -0.292669 0 10
-0.62187302 3.284883 -0.29249501 0 10
-0.43962201 3.330277 -0.29388899 0 10
-0.089602001 3.3767049 -0.53500599 0 6
-1.469878 3.0500939 -0.53625703 0 6
-0.081302002 3.3749399 -0.534693 0 6
-1.443496 3.0386281 -0.53281599 0 6
-0.085127003 3.3629889 -0.53281599 0 6
-1.456561 3.045531 -0.534693 0 6
-0.092974998 3.3706861 -0.53406698 0 6
-1.45569 3.0152669 -0.53031301 0 6
-0.083068997 3.374897 -0.534693 0 6
-1.454007 3.0511279 -0.53531897 0 6
-1.112133 3.1440561 -0.40948099 0 8
-0.90819001 3.190341 -0.407287 0 8
-0.63803297 3.2490799 -0.40655601 0 8
-0.41450301 3.3230989 -0.41118699 0 8
-0.090094998 3.395298 -0.41703701 0 8
-1.474522 3.0597301 -0.41703701 0 8
-1.11914 3.120487 -0.40704399 0 8
-0.89873898 3.190953 -0.40704399 0 8
-0.62952501 3.2507391 -0.40655601 0 8
-0.081749998 3.393523 -0.41679299 0 8
-1.478793 3.057668 -0.41703701 0 8
-1.127951 3.127866 -0.40826201 0 8
-0.91080499 3.2122979 -0.40996799 0 8
-0.63292301 3.2440121 -0.40582499 0 8
-0.43170199 3.296885 -0.40826201 0 8
-0.086048 3.399374 -0.41752401 0 8
-1.116639 3.1445651 -0.40972501 0 8
-0.89299601 3.2069919 -0.40875 0 8
-0.64028102 3.242568 -0.40582499 0 8
-0.42005101 3.334408 -0.41264999 0 8
-0.093595996 3.3932171 -0.41679299 0 8
-1.123206 3.123246 -0.40753099 0 8
-0.90206301 3.1920781 -0.407287 0 8
-0.63293099 3.256145 -0.407287 0 8
-0.43324599 3.3267131 -0.41191801 0 8
-0.083576001 3.3954639 -0.41703701 0 8
-1.482527 3.05586 -0.41703701 0 8
-1.112133 3.1440561 -0.40948099 0 8
-0.90819001 3.190341 -0.407287 0 8
-0.63803297 3.2490799 -0.40655601 0 8
-0.41450301 3.3230989 -0.41118699 0 8
-1.449388 3.0969241 -0.179198 0 12
-0.090860002 3.424094 -0.17951199 0 12
-1.470888 3.10888 -0.180245 0 12
-1.4478329 3.1020601 -0.179408 0 12
-0.086778 3.428196 -0.179722 0 12
-1.464749 3.1183989 -0.18055899 0 12
-0.084726997 3.4422319 -0.180454 0 12
-1.449388 3.0969241 -0.179198 0 12
-1.140987 3.225626 0.059721999 0 1
-0.88547599 3.286278 0.059408002 0 1
-0.64927697 3.306339 0.058814999 0 1
-0.42250201 3.3872321 0.059583001 0 1
-0.092403002 3.482244 0.060803998 0 1
-1.153026 3.2149701 0.059617002 0 1
-0.90192002 3.290097 0.059548002 0 1
-0.64442199 3.3276601 0.059163999 0 1
-0.41616601 3.4041331 0.059861999 0 1
-0.108016 3.4757919 0.060699001 0 1
-1.1337219 3.2175879 0.059548002 0 1
-0.90712899 3.2865901 0.059512999 0 1
-0.650599 3.3346081 0.059303001 0 1
-0.420919 3.403549 0.059861999 0 1
-0.088147998 3.4823539 0.060803998 0 1
-1.136898 3.201617 0.059303001 0 1
-0.91297501 3.278744 0.059408002 0 1
-0.65816301 3.333123 0.059303001 0 1
-0.40463799 3.4035089 0.059827 0 1
-0.095331997 3.4561591 0.060350001 0 1
-1.132038 3.2181809 0.059548002 0 1
-0.90426099 3.2873809 0.059512999 0 1
-0.64750803 3.331135 0.059232999 0 1
-0.41697401 3.3959761 0.059721999 0 1
-0.085716002 3.482414 0.060803998 0 1
-1.140987 3.225626 0.059721999 0 1
-0.88547599 3.286278 0.059408002 0 1
-0.64927697 3.306339 0.058814999 0 1
-0.42250201 3.3872321 0.059583001 0 1
-1.46048 3.120625 -0.060141001 0 14
-1.084952 3.209038 -0.059129 0 14
-0.97000003 3.2372861 -0.058989 0 14
-0.60390198 3.3230569 -0.058954 0 14
-0.46676299 3.3551719 -0.059129 0 14
-0.091500998 3.448261 -0.060210999 0 14
-1.07662 3.2139521 -0.059163999 0 14
-0.95981997 3.2361469 -0.058919001 0 14
-0.59719199 3.332396 -0.059094001 0 14
-0.45743701 3.3524201 -0.059059002 0 14
-0.106774 3.435817 -0.060001001 0 14
-1.452983 3.1130919 -0.059966002 0 14
-1.080313 3.206383 -0.059059002 0 14
-0.96087998 3.2170539 -0.058605 0 14
-0.60184401 3.3315589 -0.059094001 0 14
-0.46434301 3.3635831 -0.059268001 0 14
-0.088097997 3.480355 -0.060768999 0 14
-1.087502 3.2018399 -0.059023999 0 14
-0.97798902 3.2495019 -0.059232999 0 14
-0.609761 3.3321519 -0.059129 0 14
-0.468858 3.3488231 -0.059023999 0 14
-0.094890997 3.440167 -0.060070999 0 14
-1.081897 3.218509 -0.059268001 0 14
-0.95635998 3.212142 -0.058499999 0 14
-0.59690899 3.314162 -0.05878 0 14
-0.46199501 3.3639059 -0.059268001 0 14
-0.109644 3.431726 -0.059932001 0 14
-1.46048 3.120625 -0.060141001 0 14
-1.084952 3.209038 -0.059129 0 14
-0.97000003 3.2372861 -0.058989 0 14
-0.60390198 3.3230569 -0.058954 0 14
-0.46676299 3.3551719 -0.059129 0 14
0.478935 3.4827509 -0.81162298 0 2
0.48079401 3.4962649 -0.81477302 0 2
0.48540699 3.493659 -0.81432301 0 2
0.49628201 3.478353 -0.81117302 0 2
0.47999701 3.490473 -0.81342298 0 2
0.478935 3.4827509 -0.81162298 0 2
