# .PCD v0.7 - Point Cloud Data file format
VERSION 0.7
FIELDS x y z intensity ring
SIZE 4 4 4 4 2
TYPE F F F F U
COUNT 1 1 1 1 1
WIDTH 1306
HEIGHT 1
VIEWPOINT 0 0 0 1 0 0 0
POINTS 1306
DATA ascii
-1.398743 3.1698761 0.303128 21 5
-1.345331 3.0488319 -0.52780998 55 6
-1.3663729 3.096518 -0.41557401 4 8
-1.361743 3.0860269 -0.295109 28 10
-1.374748 3.1154971 -0.17846601 34 12
-1.378846 3.1247849 -0.059617002 25 14
-1.389341 3.1485691 0.060070999 26 1
-1.3957109 3.1630061 0.181187 5 3
-1.349756 3.058861 -0.64989501 16 4
-1.404373 3.182636 0.30434799 20 5
-1.350913 3.0614829 -0.52999997 7 6
-1.363167 3.0892529 -0.41460001 4 8
-1.36657 3.0969639 -0.29615501 33 10
-1.365878 3.095397 -0.177314 28 12
-1.378846 3.1247849 -0.059617002 25 14
-1.367326 3.1581919 0.060070999 26 1
-1.373595 3.172673 0.181187 5 3
-1.327589 3.0664079 -0.64951402 18 4
-1.38212 3.192363 0.30434799 20 5
-1.331862 3.076278 -0.53093898 9 6
-1.337624 3.089586 -0.41338101 4 8
-1.341749 3.0991149 -0.29545799 31 10
-1.347409 3.1121881 -0.177733 27 12
-1.358587 3.138006 -0.059687 25 14
-1.372093 3.1692021 0.060281001 26 1
-1.368834 3.161675 0.18055899 5 3
-1.319788 3.0483911 -0.64569801 20 4
-1.379745 3.186878 0.30382499 21 5
-1.330525 3.0731909 -0.41118699 4 8
-1.340166 3.095458 -0.295109 30 10
-1.348996 3.115854 -0.17794199 30 12
-1.35382 3.1269951 -0.059478 25 14
-1.348371 3.1750231 0.060210999 28 1
-1.349851 3.178508 0.180978 5 3
-1.299242 3.0593381 -0.646079 21 4
-1.351233 3.181762 0.30243 21 5
-1.304175 3.070955 -0.52843601 64 6
-1.309814 3.0842321 -0.41143101 4 8
-1.315408 3.097404 -0.29441199 31 10
-1.3287719 3.1288731 -0.17815199 28 12
-1.3288291 3.1290081 -0.059338 25 14
-1.338991 3.152936 0.059792001 24 1
-1.3529741 3.1858621 0.18139599 5 3
-1.301544 3.064759 -0.64722401 24 4
-1.35279 3.1854291 0.30277899 22 5
-1.302631 3.0673189 -0.52780998 61 6
-1.315246 3.0970221 -0.41313699 4 8
-1.315408 3.097404 -0.29441199 30 10
-1.324088 3.117842 -0.177524 28 12
-1.331956 3.1363699 -0.059478 25 14
-1.320022 3.169591 0.059932001 27 1
-1.327628 3.1878541 0.180978 5 3
-1.277097 3.0665219 -0.64569801 23 4
-1.331285 3.196635 0.302953 21 5
-1.282704 3.0799849 -0.52843601 60 6
-1.295882 3.1116259 -0.41386801 4 8
-1.29222 3.102833 -0.294063 31 10
-1.302289 3.1270101 -0.177524 28 12
-1.311565 3.1492851 -0.059548002 25 14
-1.320022 3.169591 0.059932001 27 1
-1.321485 3.173104 0.18014 10 3
-1.277097 3.0665219 -0.64569801 28 4
-1.332051 3.1984739 0.303128 23 5
-1.282704 3.0799849 -0.52843601 61 6
-1.28825 3.0933011 -0.41143101 4 8
-1.293752 3.1065111 -0.29441199 33 10
-1.297682 3.115948 -0.17689601 30 12
-1.311565 3.1492851 -0.059548002 23 14
-1.304466 3.1933119 0.060210999 28 1
-1.2524821 3.066056 -0.64379001 29 4
-1.309495 3.2056229 0.302953 20 5
-1.264698 3.0959599 -0.52968699 60 6
-1.26191 3.0891349 -0.40972501 4 8
-1.274837 3.120779 -0.29493499 38 10
-1.2794631 3.1321039 -0.177314 28 12
-1.284048 3.1433301 -0.059268001 25 14
-1.298417 3.178503 0.059932001 27 1
-1.3028769 3.1894219 0.18055899 55 3
-1.253225 3.067873 -0.644171 31 4
-1.307235 3.200089 0.30243 23 5
-1.26171 3.088645 -0.52843601 64 6
-1.2641619 3.0946479 -0.410456 4 8
-1.268055 3.1041789 -0.29336599 35 10
-1.2794631 3.1321039 -0.177314 28 12
-1.284048 3.1433301 -0.059268001 25 14
-1.272668 3.1802859 0.059792001 27 1
-1.280022 3.198663 0.18055899 50 3
-1.236347 3.0895209 -0.64684302 36 4
-1.284304 3.2093611 0.30243 23 5
-1.236641 3.0902579 -0.52718401 64 6
-1.253049 3.131259 -0.414112 7 8
-1.249513 3.122422 -0.294238 37 10
-1.258503 3.1448879 -0.177524 28 12
-1.264496 3.159863 -0.059408002 25 14
-1.2711819 3.1765721 0.059721999 27 1
-1.277796 3.193099 0.180245 50 3
-1.236347 3.0895209 -0.64684302 36 4
-1.287264 3.2167599 0.303128 22 5
-1.236641 3.0902579 -0.52718401 61 6
-1.245674 3.112829 -0.41167501 6 8
-1.245811 3.113173 -0.29336599 35 10
-1.2525671 3.130053 -0.176686 28 12
-1.264496 3.159863 -0.059408002 25 14
-1.250435 3.1890931 0.059792001 28 1
-1.214748 3.098078 -0.64684302 36 4
-1.261867 3.2182491 0.30243 23 5
-1.223912 3.1214499 -0.41167501 7 8
-1.228411 3.1329241 -0.29441199 34 10
-1.230684 3.1387219 -0.176686 28 12
-1.2424051 3.1686139 -0.059408002 25 14
-1.251895 3.192816 0.059861999 26 1
-1.24964 3.187067 0.179408 5 3
-1.210448 3.087111 -0.64455301 36 4
-1.261867 3.2182491 0.30243 23 5
-1.211432 3.0896211 -0.52561998 9 6
-1.219564 3.1103611 -0.41021201 8 8
-1.2240469 3.121794 -0.29336599 35 10
-1.230684 3.1387219 -0.176686 27 12
-1.238025 3.157444 -0.059199002 25 14
-1.227821 3.193583 0.059721999 26 1
-1.233492 3.208334 0.18014 5 3
-1.189947 3.0950711 -0.64455301 36 4
-1.237635 3.2191091 0.30173299 22 5
-1.192332 3.101275 -0.52624601 27 6
-1.199621 3.120234 -0.410456 23 8
-1.200456 3.122406 -0.292669 33 10
-1.214141 3.158 -0.177314 28 12
-1.217057 3.165586 -0.059199002 25 14
-1.223515 3.182384 0.059512999 26 1
-1.237793 3.2195201 0.180768 5 3
-1.189947 3.0950711 -0.64455301 36 4
-1.237635 3.2191091 0.30173299 23 5
-1.190205 3.0957439 -0.525307 36 6
-1.206745 3.138763 -0.412893 34 8
-1.200456 3.122406 -0.292669 33 10
-1.2098401 3.1468151 -0.176686 28 12
-1.217057 3.165586 -0.059199002 25 14
-1.2021199 3.1948011 0.059583001 27 1
-1.171225 3.112694 -0.64646101 40 4
-1.214568 3.2278831 0.30173299 22 5
-1.168022 3.1041811 -0.525307 38 6
-1.182855 3.1436019 -0.412406 39 8
-1.180186 3.1365099 -0.293192 37 10
-1.183071 3.144176 -0.17605799 28 12
-1.19719 3.1817 -0.059338 25 14
-1.205641 3.204159 0.059757002 30 1
-1.204875 3.2021251 0.17930301 22 3
-1.167768 3.103507 -0.64455301 38 4
-1.215971 3.231612 0.302082 23 5
-1.169413 3.1078789 -0.52593303 37 6
-1.171669 3.1138749 -0.40850601 34 8
-1.182291 3.1421039 -0.293715 38 10
-1.183071 3.144176 -0.17605799 28 12
-1.192965 3.17047 -0.059129 25 14
-1.1813 3.208951 0.059687 26 1
-1.184691 3.2181621 0.179722 23 3
-1.142139 3.102572 -0.642645 42 4
-1.191438 3.236491 0.30173299 22 5
-1.147826 3.118021 -0.52624601 39 6
-1.146614 3.114728 -0.40753099 36 8
-1.1584001 3.146744 -0.29336599 42 10
-1.163301 3.160058 -0.176477 30 12
-1.168865 3.175173 -0.059059002 25 14
-1.182682 3.2127039 0.059757002 27 1
-1.184001 3.2162869 0.179617 22 3
-1.138748 3.0933599 -0.640737 46 4
-1.185932 3.221534 0.30033901 23 5
-1.145097 3.110606 -0.52499402 41 6
-1.1507289 3.125905 -0.40899399 36 8
-1.1542701 3.1355259 -0.29232001 37 10
-1.167441 3.171304 -0.17710499 30 12
-1.171629 3.1826789 -0.059199002 25 14
-1.154565 3.2016661 0.059408002 27 1
-1.163321 3.2259481 0.179722 23 3
-1.119539 3.104538 -0.6415 45 4
-1.167243 3.236825 0.301036 23 5
-1.123101 3.1144159 -0.52436799 41 6
-1.129972 3.1334679 -0.40899399 40 8
-1.132773 3.141238 -0.292146 35 10
-1.140962 3.1639471 -0.176268 28 12
-1.147781 3.1828549 -0.059059002 25 14
-1.154565 3.2016661 0.059408002 27 1
-1.163321 3.2259481 0.179722 23 3
-1.123535 3.1156189 -0.64379001 45 4
-1.168595 3.2405729 0.30138499 22 5
-1.121761 3.1106989 -0.52374297 39 6
-1.127951 3.127866 -0.40826201 33 8
-1.132097 3.139364 -0.29197201 37 10
-1.139607 3.1601889 -0.17605799 30 12
-1.150494 3.1903789 -0.059199002 25 14
-1.1337219 3.2175879 0.059548002 19 1
-1.137651 3.2287381 0.179408 25 3
-1.096751 3.1126609 -0.6415 48 4
-1.147458 3.2565689 0.302082 22 5
-1.101554 3.126291 -0.52499402 41 6
-1.111703 3.1550951 -0.292669 27 10
-1.116411 3.168458 -0.17605799 28 12
-1.127077 3.1987269 -0.059199002 25 14
-1.136324 3.2249701 0.179198 22 3
-1.091532 3.0978479 -0.63844699 48 4
-1.142161 3.2415359 0.30068699 22 5
-1.103523 3.131881 -0.52593303 42 6
-1.1150841 3.16469 -0.17584901 30 12
-1.12309 3.1874111 -0.058989 25 14
-1.1176 3.2420709 0.179722 23 3
-1.074259 3.1163421 -0.640737 48 4
-1.118771 3.2454679 0.30033901 22 5
-1.080248 3.1337171 -0.52499402 39 6
-1.096771 3.181648 -0.17637201 31 12
-1.101368 3.1949821 -0.058989 26 14
-1.1176 3.2420709 0.179722 23 3
-1.074899 3.1181979 -0.64111799 50 4
-1.12007 3.2492361 0.30068699 23 5
-1.077029 3.1243789 -0.52342999 42 6
-1.098073 3.185425 -0.17658199 35 12
-1.101368 3.1949821 -0.058989 25 14
-1.0936641 3.2460091 0.17951199 23 3
-1.055611 3.133069 -0.642645 50 4
-1.098631 3.260752 0.301036 22 5
-1.057714 3.1393099 -0.52468097 46 6
-1.0694309 3.1740861 -0.17553499 31 12
-1.084143 3.2177529 -0.059268001 22 14
-1.091113 3.2384379 0.179094 23 3
-1.05185 3.121906 -0.64035499 51 4
-1.099903 3.264528 0.30138499 22 5
-1.057714 3.1393099 -0.52468097 49 6
-1.0694309 3.1740861 -0.17553499 31 12
-1.080313 3.206383 -0.059059002 3 14
-1.067855 3.2440791 0.17898899 23 3
-1.027575 3.1217129 -0.63882899 50 4
-1.073349 3.260772 0.30033901 23 5
-1.037008 3.1503699 -0.525307 46 6
-1.052243 3.196651 -0.17637201 35 12
-1.070352 3.251667 0.179408 23 3
-1.028803 3.125443 -0.63959199 54 4
-1.070858 3.253202 0.29964101 23 5
-1.034538 3.142864 -0.524055 51 6
-1.052243 3.196651 -0.17637201 35 12
-1.047057 3.259243 0.179408 22 3
-1.007612 3.1364629 -0.64035499 56 4
-1.04877 3.264575 0.29999 22 5
-1.008396 3.1389029 -0.52217799 51 6
-1.026898 3.1964929 -0.175953 38 12
-1.048889 3.2649479 0.179722 23 3
-1.0100141 3.143939 -0.64188099 54 4
-1.049988 3.268369 0.30033901 22 5
-1.008396 3.1389029 -0.52217799 55 6
-1.0238431 3.186985 -0.17543 41 12
-1.020631 3.2508719 0.17857 23 3
-0.98619998 3.1412041 -0.63997298 58 4
-1.029482 3.279063 0.30068699 25 5
-0.98755598 3.1455221 -0.52217799 55 6
-1.005077 3.201328 -0.17584901 41 12
-1.0218281 3.254683 0.17878 23 3
-0.98208398 3.1280921 -0.63730198 58 4
-1.028289 3.2752609 0.30033901 22 5
-0.99110597 3.1568301 -0.524055 51 6
-1.005675 3.203233 -0.175953 38 12
-1.0002511 3.2655571 0.17898899 23 3
-0.96022201 3.134872 -0.63730198 58 4
-1.003064 3.27474 0.29964101 23 5
-0.96672899 3.156117 -0.52280402 52 6
-0.98504198 3.215905 -0.176268 41 12
-1.002591 3.273196 0.179408 23 3
-0.96137202 3.1386261 -0.63806498 57 4
-1.006565 3.28617 0.30068699 22 5
-0.96325803 3.144784 -0.52092701 55 6
-0.98328799 3.210176 -0.175953 35 12
-0.97742897 3.27246 0.17898899 23 3
-0.93999797 3.1471419 -0.63844699 63 4
-0.98359901 3.293117 0.30068699 23 5
-0.94240999 3.1552179 -0.52155298 56 6
-0.95799398 3.2073939 -0.17543 41 12
-0.97399902 3.260978 0.178361 23 3
-0.94055998 3.149024 -0.63882899 58 4
-0.98473901 3.2969351 0.301036 22 5
-0.94354099 3.159004 -0.52217799 55 6
-0.95913798 3.211221 -0.175639 42 12
-0.96087998 3.2170539 -0.058605 15 14
-0.952326 3.271533 0.17857 23 3
-0.91526097 3.1442029 -0.63653898 57 4
-0.96058398 3.2999041 0.30068699 23 5
-0.92256802 3.169307 -0.52280402 58 6
-0.93669599 3.217839 -0.175639 41 12
-0.93895602 3.2256041 -0.058639999 28 14
-0.95344198 3.2753689 0.17878 25 3
-0.91580898 3.1460879 -0.63691998 63 4
-0.95612901 3.2846 0.29929301 23 5
-0.92146403 3.165514 -0.52217799 58 6
-0.94172001 3.2350979 -0.17658199 52 12
-0.94119197 3.233284 -0.05878 28 14
-0.92946303 3.2781019 0.17857 25 3
-0.89435899 3.154294 -0.63730198 60 4
-0.93426198 3.295028 0.29964101 22 5
-0.89718699 3.164268 -0.52092701 58 6
-0.91080499 3.2122979 -0.40996799 7 8
-0.91475302 3.226222 -0.175744 44 12
-0.91859603 3.2397759 -0.05878 30 14
-0.93382198 3.293474 0.179408 23 3
-0.89596498 3.15996 -0.63844699 63 4
-0.936436 3.302696 0.30033901 22 5
-0.89826399 3.1680689 -0.52155298 58 6
-0.91197902 3.216439 -0.29249501 56 10
-0.911484 3.2146921 -0.175116 35 12
-0.92077798 3.247472 -0.058919001 32 14
-0.90712899 3.2865901 0.059512999 4 1
-0.90549201 3.2806611 0.178361 25 3
-0.87283802 3.162353 -0.63768399 63 4
-0.912296 3.3053119 0.29999 21 5
-0.87559998 3.172359 -0.52124 60 6
-0.88466001 3.205183 -0.40826201 60 8
-0.88950199 3.2227271 -0.29249501 50 10
-0.89061302 3.226753 -0.17543 48 12
-0.89808398 3.2538209 -0.058919001 28 14
-0.90549201 3.2806611 0.178361 25 3
-0.872316 3.16046 -0.63730198 66 4
-0.91441602 3.312994 0.30068699 22 5
-0.877702 3.179975 -0.52249098 60 6
-0.88413101 3.20327 -0.40801901 56 8
-0.88897198 3.2208071 -0.29232001 56 10
-0.892739 3.2344539 -0.17584901 45 12
-0.89382797 3.2384 -0.058639999 28 14
-0.88358903 3.2929969 0.059512999 37 1
-0.88303 3.2909141 0.17857 23 3
-0.84764397 3.1590371 -0.63577598 54 4
-0.88655698 3.3040581 0.29929301 23 5
-0.85338998 3.1804509 -0.52155298 58 6
-0.85964501 3.2037621 -0.407287 57 8
-0.86280501 3.215539 -0.29127401 52 10
-0.86957198 3.2407589 -0.17584901 45 12
-0.87374198 3.2563009 -0.058850002 28 14
-0.87892503 3.275615 0.059199002 30 1
-0.88406497 3.2947719 0.17878 25 3
-0.84866202 3.1628289 -0.63653898 60 4
-0.88603997 3.3021331 0.29911801 21 5
-0.85390198 3.182358 -0.52186501 60 6
-0.85758698 3.1960931 -0.40631199 45 8
-0.861256 3.2097659 -0.29075199 49 10
-0.86957198 3.2407589 -0.17584901 48 12
-0.87166899 3.248575 -0.058710001 30 14
-0.85704499 3.2855411 0.059268001 26 1
-0.86003298 3.296999 0.17857 26 3
-0.82854301 3.176276 -0.63806498 69 4
-0.86648601 3.321734 0.30033901 23 5
-0.83116502 3.186331 -0.52155298 66 6
-0.835253 3.202002 -0.40631199 57 8
-0.84083802 3.223412 -0.29144901 49 10
-0.84390199 3.2351561 -0.175221 45 12
-0.85199702 3.266191 -0.058919001 28 14
-0.85906398 3.2932811 0.059408002 30 1
-0.86003298 3.296999 0.17857 25 3
-0.82854301 3.176276 -0.63806498 58 4
-0.86648601 3.321734 0.30033901 23 5
-0.83266097 3.192065 -0.52249098 68 6
-0.83324897 3.194319 -0.40533701 54 8
-0.84285003 3.231123 -0.292146 49 10
-0.84390199 3.2351561 -0.175221 45 12
-0.85098797 3.262321 -0.058850002 25 14
-0.83662701 3.299052 0.059408002 27 1
-0.83658999 3.2989039 0.178361 23 3
-0.80497301 3.1742289 -0.63653898 69 4
-0.84287602 3.3236921 0.29999 23 5
-0.811885 3.201488 -0.52311701 72 6
-0.811975 3.2018411 -0.405581 63 8
-0.81838799 3.227129 -0.29127401 56 10
-0.82480699 3.2524409 -0.17584901 48 12
-0.825813 3.256408 -0.058639999 30 14
-0.83564401 3.2951751 0.059338 27 1
-0.83658999 3.2989039 0.178361 26 3
-0.80545503 3.1761329 -0.63691998 73 4
-0.83993697 3.3121049 0.298944 23 5
-0.81091398 3.197659 -0.52249098 72 6
-0.81490201 3.2133861 -0.40704399 63 8
-0.81593901 3.217473 -0.29040301 47 10
-0.82480699 3.2524409 -0.17584901 48 12
-0.826796 3.2602849 -0.058710001 30 14
-0.80822098 3.2855361 0.059059002 27 1
-0.81630099 3.318382 0.179094 27 3
-0.78223801 3.179909 -0.63653898 66 4
-0.81716698 3.3218999 0.29929301 23 5
-0.78565198 3.193789 -0.52092701 64 6
-0.790465 3.213352 -0.40631199 54 8
-0.79575002 3.234838 -0.29144901 52 10
-0.79960299 3.2505021 -0.17543 45 12
-0.80631101 3.2777691 -0.058919001 25 14
-0.81108701 3.2971871 0.059268001 27 1
-0.812962 3.304806 0.178361 23 3
-0.78270698 3.1818149 -0.63691998 63 4
-0.81906998 3.329638 0.29999 22 5
-0.786596 3.1976249 -0.52155298 66 6
-0.79093897 3.2152801 -0.40655601 60 8
-0.79527402 3.232903 -0.29127401 49 10
-0.79960299 3.2505021 -0.17543 41 12
-0.80631101 3.2777691 -0.058919001 27 14
-0.787696 3.2987411 0.059199002 27 1
-0.78998399 3.308321 0.17825601 26 3
-0.76239902 3.1927979 -0.63806498 69 4
-0.79546201 3.3312609 0.29964101 23 5
-0.767106 3.212512 -0.52311701 68 6
-0.76442403 3.2012811 -0.40411901 50 8
-0.774638 3.244055 -0.29179701 52 10
-0.77931499 3.2636399 -0.17584901 45 12
-0.78212303 3.2754011 -0.05878 28 14
-0.789554 3.3065209 0.059338 26 1
-0.78859198 3.3024931 0.17794199 25 3
-0.75920701 3.179431 -0.63539398 56 4
-0.79731297 3.3390131 0.30033901 25 5
-0.76664698 3.2105911 -0.52280402 64 6
-0.76719099 3.2128661 -0.405581 50 8
-0.77278697 3.236304 -0.2911 53 10
-0.77838701 3.2597549 -0.175639 48 12
-0.78119397 3.2715111 -0.058710001 27 14
-0.76690203 3.3139009 0.059372999 28 1
-0.76821899 3.319593 0.17857 25 3
-0.73787701 3.1884789 -0.63615698 63 4
-0.77128702 3.3328509 0.29929301 23 5
-0.74332398 3.2120161 -0.52217799 66 6
-0.745637 3.222012 -0.40606901 63 8
-0.750175 3.2416201 -0.2911 55 10
-0.75831199 3.2767839 -0.176268 41 12
-0.75833601 3.276885 -0.058710001 27 14
-0.76419699 3.302212 0.059163999 26 1
-0.77002001 3.3273759 0.17898899 25 3
-0.73876202 3.1923039 -0.63691998 63 4
-0.77308398 3.340615 0.29999 25 5
-0.74065101 3.200469 -0.52030098 64 6
-0.74698001 3.227813 -0.4068 54 8
-0.74972498 3.2396791 -0.29092601 46 10
-0.75651097 3.269001 -0.17584901 45 12
-0.76013899 3.284678 -0.058850002 25 14
-0.74287301 3.3152721 0.059303001 28 1
-0.74589902 3.328773 0.17878 26 3
-0.716887 3.1993001 -0.63730198 57 4
-0.74974298 3.3459311 0.29999 22 5
-0.72088099 3.2171271 -0.52217799 66 6
-0.722691 3.2252009 -0.40582499 54 8
-0.727961 3.2487221 -0.29127401 53 10
-0.73236102 3.2683561 -0.17553499 52 12
-0.73806399 3.293807 -0.058919001 25 14
-0.74199897 3.3113689 0.059232999 27 1
-0.74458897 3.322926 0.17846601 26 3
-0.71774501 3.203131 -0.63806498 66 4
-0.74974298 3.3459311 0.29999 23 5
-0.72174501 3.2209821 -0.52280402 64 6
-0.72052097 3.2155161 -0.40460601 48 8
-0.72970402 3.2564991 -0.29197201 49 10
-0.73148698 3.2644579 -0.17532501 37 12
-0.73893797 3.2977099 -0.058989 26 14
-0.72029001 3.320251 0.059303001 27 1
-0.72237599 3.329869 0.17857 26 3
-0.69217998 3.190675 -0.63463098 48 4
-0.72779602 3.354851 0.30033901 23 5
-0.69980401 3.2258201 -0.52280402 58 6
-0.69903702 3.222286 -0.40485001 54 8
-0.70625299 3.255549 -0.29144901 42 10
-0.710944 3.277169 -0.175744 35 12
-0.71477801 3.2948461 -0.058850002 25 14
-0.721986 3.328068 0.059443001 28 1
-0.72449303 3.339628 0.179094 26 3
-0.69384497 3.19835 -0.63615698 63 4
-0.72610599 3.3470631 0.29964101 22 5
-0.69980401 3.2258201 -0.52280402 55 6
-0.70198298 3.2358661 -0.40655601 52 8
-0.70456398 3.247761 -0.29075199 45 10
-0.71221399 3.283025 -0.17605799 42 12
-0.71477801 3.2948461 -0.058850002 26 14
-0.69545299 3.3173699 0.059163999 26 1
-0.70116198 3.344605 0.179094 27 3
-0.67190301 3.2050371 -0.63653898 55 4
-0.70354098 3.3559501 0.29999 25 5
-0.67483598 3.219027 -0.52092701 61 6
-0.68100601 3.2484591 -0.40753099 50 8
-0.68269199 3.2565 -0.2911 46 10
-0.68722898 3.2781429 -0.17553499 38 12
-0.69094002 3.2958419 -0.05878 25 14
-0.69463199 3.3134561 0.059094001 24 1
-0.69993299 3.3387401 0.17878 26 3
-0.67472303 3.218487 -0.63920999 54 4
-0.70354098 3.3559501 0.29999 23 5
-0.67726803 3.2306271 -0.52280402 60 6
-0.67774802 3.2329161 -0.405581 50 8
-0.683918 3.2623501 -0.291623 50 10
-0.68722898 3.2781429 -0.17553499 31 12
-0.69340098 3.307585 -0.058989 25 14
-0.67307001 3.3260651 0.059232999 27 1
-0.67502302 3.3357151 0.178361 25 3
-0.64951199 3.2096491 -0.63653898 60 4
-0.68167502 3.3685911 0.30068699 23 5
-0.65469801 3.235276 -0.52280402 58 6
-0.65476799 3.2356229 -0.40533701 47 8
-0.66191697 3.270951 -0.29197201 46 10
-0.66313797 3.276988 -0.175221 30 12
-0.67108703 3.3162651 -0.059059002 23 14
-0.67465597 3.333904 0.059372999 26 1
-0.67502302 3.3357151 0.178361 25 3
-0.64873302 3.205801 -0.63577598 51 4
-0.68167502 3.3685911 0.30068699 25 5
-0.65626502 3.243021 -0.524055 56 6
-0.65555501 3.2395141 -0.40582499 43 8
-0.65994102 3.2611871 -0.2911 49 10
-0.66432703 3.282861 -0.17553499 35 12
-0.66791397 3.300585 -0.05878 25 14
-0.650599 3.3346081 0.059303001 26 1
-0.654396 3.354069 0.179094 26 3
-0.62595999 3.2083249 -0.63539398 45 4
-0.65585202 3.3615351 0.29964101 21 5
-0.63360798 3.2475231 -0.524055 58 6
-0.63520402 3.255702 -0.407287 45 8
-0.63792002 3.2696259 -0.29144901 42 10
-0.64292198 3.29526 -0.175953 35 12
-0.64485502 3.305167 -0.05878 27 14
-0.654396 3.354069 0.179094 26 3
-0.63009602 3.229521 -0.63959199 54 4
-0.65585202 3.3615351 0.29964101 25 5
-0.62944698 3.2261961 -0.52061403 48 6
-0.63292301 3.2440121 -0.40582499 14 8
-0.63792002 3.2696259 -0.29144901 45 10
-0.64292198 3.29526 -0.175953 34 12
-0.64715201 3.3169439 -0.058989 25 14
-0.63155001 3.3584449 0.179094 26 3
-0.60955 3.2414529 -0.64111799 56 4
-0.63369203 3.369837 0.29999 22 5
-0.60856801 3.2362299 -0.52155298 49 6
-0.61973798 3.295634 -0.175744 35 12
-0.62603801 3.329133 -0.059129 25 14
-0.63044298 3.352556 0.17878 23 3
-0.60773599 3.231806 -0.63920999 48 4
-0.63516498 3.37767 0.30068699 23 5
-0.60929799 3.240113 -0.52217799 51 6
-0.61900002 3.291708 -0.17553499 35 12
-0.62529898 3.325202 -0.059059002 25 14
-0.605726 3.3530509 0.17857 23 3
-0.58459401 3.2360721 -0.63920999 48 4
-0.61097902 3.382128 0.30068699 23 5
-0.58960801 3.263829 -0.525307 48 6
-0.59614003 3.299984 -0.175744 31 12
-0.60006601 3.3217199 -0.058919001 23 14
-0.60714602 3.360913 0.17898899 25 3
-0.58249998 3.2244799 -0.63691998 45 4
-0.608854 3.370364 0.29964101 23 5
-0.58820301 3.256053 -0.524055 48 6
-0.59898001 3.3157079 -0.17658199 31 12
-0.60184401 3.3315589 -0.059094001 6 14
-0.58366799 3.3650701 0.17898899 26 3
-0.56131703 3.2362051 -0.63844699 46 4
-0.58599001 3.378459 0.29999 25 5
-0.564107 3.252295 -0.52280402 46 6
-0.57376999 3.308002 -0.175953 31 12
-0.584351 3.3690059 0.179198 25 3
-0.56265903 3.243943 -0.63997298 42 4
-0.58701199 3.3843479 0.300513 27 5
-0.56478298 3.2561879 -0.52342999 48 6
-0.57342798 3.3060329 -0.17584901 30 12
-0.561665 3.370837 0.179094 27 3
-0.54113102 3.2476029 -0.63997298 42 4
-0.56619 3.397994 0.30138499 23 5
-0.54512203 3.271553 -0.525307 42 6
-0.55083197 3.305824 -0.175639 28 12
-0.56133699 3.3688669 0.17898899 23 3
-0.539195 3.2359841 -0.63768399 46 4
-0.56619 3.397994 0.30138499 25 5
-0.54512203 3.271553 -0.525307 42 6
-0.551817 3.311734 -0.175953 35 12
-0.537844 3.3767419 0.179198 23 3
-0.516334 3.241698 -0.63806498 39 4
-0.53935301 3.3862171 0.29999 21 5
-0.52107602 3.2714679 -0.52468097 40 6
-0.53061801 3.331377 -0.176791 31 12
-0.539101 3.3846321 0.179617 25 3
-0.51849598 3.25527 -0.640737 42 4
-0.54123402 3.3980229 0.301036 25 5
-0.520455 3.2675669 -0.524055 42 6
-0.52904701 3.3215151 -0.176268 28 12
-0.51485699 3.3843639 0.179408 23 3
-0.49634799 3.262692 -0.6415 38 4
-0.51869601 3.4095969 0.30173299 23 5
-0.49822399 3.275027 -0.52468097 41 6
-0.504044 3.3132801 -0.175639 30 12
-0.51425701 3.380415 0.179198 23 3
-0.49575701 3.25881 -0.640737 37 4
-0.51809698 3.405658 0.30138499 25 5
-0.50000697 3.2867441 -0.52655798 40 6
-0.50584602 3.3251281 -0.176268 28 12
-0.49121901 3.387876 0.179408 23 3
-0.472433 3.258306 -0.63997298 38 4
-0.493738 3.4052479 0.301036 23 5
-0.47733399 3.292109 -0.52687103 38 6
-0.482335 3.326601 -0.176163 31 12
-0.49179199 3.391829 0.179617 23 3
-0.471306 3.2505341 -0.63844699 32 4
-0.493166 3.401305 0.30068699 22 5
-0.47705001 3.290154 -0.52655798 42 6
-0.484341 3.3404379 -0.17689601 28 12
-0.46924001 3.399055 0.17982601 22 3
-0.45185399 3.2731149 -0.642263 38 4
-0.47000301 3.404583 0.30068699 23 5
-0.453563 3.2854979 -0.525307 40 6
-0.4605 3.335743 -0.176477 28 12
-0.46434301 3.3635831 -0.059268001 12 14
-0.46978599 3.403012 0.18003599 23 3
-0.45346501 3.2847841 -0.64455301 36 4
-0.47027501 3.4065559 0.30086201 21 5
-0.453293 3.283541 -0.52499402 36 6
-0.45967999 3.329807 -0.176163 31 12
-0.46406901 3.3616021 -0.059232999 27 14
-0.44394299 3.3903661 0.179198 22 3
-0.430776 3.2898159 -0.644934 40 4
-0.44881001 3.427536 0.30243 25 5
-0.43035901 3.2866261 -0.52499402 36 6
-0.436423 3.3329351 -0.176163 34 12
-0.439551 3.356828 -0.059094001 25 14
-0.44498 3.3982871 0.179617 25 3
-0.42950201 3.2800829 -0.64302599 36 4
-0.44829199 3.4235849 0.302082 23 5
-0.43189701 3.298378 -0.52687103 33 6
-0.43170199 3.296885 -0.40826201 1 8
-0.437428 3.3406129 -0.294761 12 10
-0.43720001 3.338876 -0.176477 28 12
-0.44007 3.3607941 -0.059163999 28 14
-0.421141 3.405349 0.17982601 23 3
-0.407224 3.292815 -0.644934 34 4
-0.422315 3.4148409 0.301036 23 5
-0.407556 3.2955019 -0.52593303 37 6
-0.41378701 3.3458841 -0.176686 28 12
-0.41527399 3.357903 -0.059059002 23 14
-0.420919 3.403549 0.059861999 24 1
-0.42261201 3.4172411 0.180454 23 3
-0.40626001 3.2850211 -0.643408 34 4
-0.42378199 3.4267061 0.302082 22 5
-0.407314 3.2935419 -0.52561998 33 6
-0.41224101 3.3333819 -0.412406 29 8
-0.41155601 3.3278389 -0.29336599 33 10
-0.41378701 3.3458841 -0.176686 28 12
-0.41674599 3.3698111 -0.059268001 26 14
-0.395758 3.3944869 0.059652001 26 1
-0.39828199 3.416141 0.180245 22 3
-0.38422599 3.295577 -0.644934 34 4
-0.40077201 3.4374959 0.30277899 23 5
-0.38431099 3.2963049 -0.52561998 33 6
-0.38804001 3.3282909 -0.41143101 33 8
-0.388313 3.330631 -0.29336599 33 10
-0.39041799 3.348691 -0.176686 28 12
-0.394137 3.380583 -0.059408002 23 14
-0.395758 3.3944869 0.059652001 26 1
-0.39805099 3.4141569 0.18014 22 3
-0.38422599 3.295577 -0.644934 31 4
-0.40077201 3.4374959 0.30277899 22 5
-0.38476801 3.30023 -0.52624601 33 6
-0.38780999 3.3263199 -0.41118699 35 8
-0.389236 3.338547 -0.294063 33 10
-0.389956 3.344723 -0.176477 27 12
-0.394137 3.380583 -0.059408002 23 14
-0.37379199 3.413069 0.059932001 24 1
-0.37333599 3.408911 0.179722 23 3
-0.360782 3.294276 -0.644171 34 4
-0.37763199 3.448133 0.30347601 23 5
-0.36257899 3.3106899 -0.52749699 36 6
-0.36436301 3.326973 -0.410943 33 8
-0.36548501 3.3372221 -0.293715 34 10
-0.367466 3.3553059 -0.17689601 28 12
-0.36921999 3.371325 -0.059199002 23 14
-0.37335601 3.4090941 0.059861999 28 1
-0.37377101 3.4128821 0.179931 22 3
-0.36120901 3.2981801 -0.644934 34 4
-0.37546301 3.4283271 0.30173299 21 5
-0.362149 3.3067629 -0.52687103 30 6
-0.36457899 3.3289461 -0.41118699 27 8
-0.36461699 3.3292999 -0.29301801 30 10
-0.36790001 3.359277 -0.17710499 27 12
-0.36965501 3.3753009 -0.059268001 26 14
-0.348528 3.4016709 0.059687 24 1
-0.35156399 3.431303 0.180768 22 3
-0.338175 3.300621 -0.644934 31 4
-0.352332 3.4387929 0.30243 23 5
-0.33804801 3.2993851 -0.525307 31 6
-0.34213901 3.339309 -0.41216201 27 8
-0.341975 3.3377111 -0.29354101 30 10
-0.344439 3.361763 -0.17710499 27 12
-0.347305 3.389735 -0.059478 25 14
-0.349751 3.4136069 0.059897002 24 1
-0.35176799 3.43329 0.18087301 13 3
-0.338375 3.3025739 -0.645316 32 4
-0.35273799 3.4427569 0.30277899 21 5
-0.339055 3.3092101 -0.52687103 29 6
-0.34153199 3.333385 -0.41143101 25 8
-0.34299001 3.34762 -0.29441199 30 10
-0.34362501 3.353816 -0.176686 28 12
-0.34771299 3.393714 -0.059548002 25 14
-0.325721 3.413975 0.059861999 24 1
-0.32589301 3.4157801 0.17982601 5 3
-0.31512401 3.302901 -0.644934 31 4
-0.32982999 3.457036 0.30382499 23 5
-0.31575599 3.30953 -0.52655798 6 6
-0.31730899 3.325808 -0.41021201 7 8
-0.31999001 3.3539 -0.294761 30 10
-0.320961 3.3640859 -0.17710499 27 12
-0.32325199 3.3880961 -0.059408002 23 14
-0.32686099 3.4259181 0.060070999 24 1
-0.32703099 3.4277091 0.180454 15 3
-0.314751 3.2989919 -0.644171 28 4
-0.32945099 3.453069 0.30347601 23 5
-0.31744501 3.3272281 -0.529374 4 6
-0.31768599 3.3297601 -0.41069999 7 8
-0.31904301 3.3439829 -0.29388899 28 10
-0.32134101 3.368062 -0.177314 27 12
-0.32325199 3.3880961 -0.059408002 25 14
-0.30240899 3.4221411 0.059966002 24 1
-0.291022 3.293287 -0.642645 28 4
-0.30481201 3.449331 0.302953 20 5
-0.294384 3.331331 -0.52968699 6 6
-0.29530799 3.341784 -0.41191801 6 8
-0.29656899 3.3560519 -0.294761 33 10
-0.29887599 3.3821609 -0.17794199 28 12
-0.30029699 3.3982379 -0.059548002 23 14
-0.30240899 3.4221411 0.059966002 24 1
-0.304326 3.443835 0.181187 35 3
-0.291886 3.3030651 -0.64455301 25 4
-0.30481201 3.449331 0.302953 21 5
-0.29386199 3.325428 -0.52874899 6 6
-0.29688001 3.35958 -0.414112 7 8
-0.295692 3.3461289 -0.29388899 28 10
-0.29852399 3.378181 -0.177733 27 12
-0.30012101 3.396246 -0.059512999 22 14
-0.278458 3.4161479 0.059827 24 1
-0.27019399 3.314759 -0.64646101 24 4
-0.28164899 3.4552979 0.30330199 20 5
-0.27105999 3.325382 -0.52843601 18 6
-0.27287701 3.3476729 -0.412406 4 8
-0.27388 3.3599789 -0.29493499 30 10
-0.274874 3.3721731 -0.177314 26 12
-0.27732101 3.4021959 -0.059583001 25 14
-0.27943301 3.4281061 0.060036 23 1
-0.28039101 3.4398551 0.18087301 12 3
-0.27019399 3.314759 -0.64646101 24 4
-0.28245899 3.4652269 0.30417401 22 5
-0.271541 3.3312891 -0.529374 40 6
-0.27206999 3.33778 -0.41118699 5 8
-0.274203 3.363951 -0.295284 27 10
-0.27584699 3.3841169 -0.17794199 27 12
-0.27732101 3.4021959 -0.059583001 23 14
-0.25548801 3.437995 0.060176 23 1
-0.25562 3.4397819 0.180768 45 3
-0.24603 3.310734 -0.645316 25 4
-0.25780299 3.469146 0.30434799 20 5
-0.248135 3.339056 -0.53031301 37 6
-0.249356 3.355479 -0.41313699 5 8
-0.249534 3.3578789 -0.294586 26 10
-0.25132799 3.38202 -0.177733 26 12
-0.25237501 3.396117 -0.059443001 22 14
-0.255191 3.4340069 0.060106002 23 1
-0.25650799 3.4517319 0.18139599 45 3
-0.24646699 3.316608 -0.64646101 28 4
-0.25721201 3.4611981 0.30365101 20 5
-0.248428 3.3429959 -0.53093898 21 6
-0.249503 3.3574591 -0.41338101 4 8
-0.24982899 3.3618529 -0.29493499 26 10
-0.25192001 3.389987 -0.17815199 26 12
-0.25267199 3.400105 -0.059512999 22 14
-0.231077 3.4337089 0.060070999 23 1
-0.232807 3.4594171 0.18171 50 3
-0.223307 3.318248 -0.64646101 23 4
-0.233042 3.4629099 0.30365101 20 5
-0.224288 3.332824 -0.52906102 20 6
-0.22632401 3.36308 -0.41386801 6 8
-0.226353 3.3635149 -0.29493499 28 10
-0.227979 3.3876779 -0.17794199 24 12
-0.229197 3.405777 -0.059583001 22 14
-0.23121101 3.435704 0.060106002 24 1
-0.23307499 3.463403 0.18192001 50 3
-0.224098 3.3300011 -0.64875102 23 4
-0.233309 3.4668851 0.30399901 20 5
-0.224685 3.3387361 -0.52999997 5 6
-0.22619 3.361099 -0.413625 5 8
-0.226888 3.3714671 -0.295632 26 10
-0.22771101 3.383693 -0.177733 24 12
-0.230003 3.417748 -0.059792001 23 14
-0.208662 3.441154 0.060176 23 1
-0.20961601 3.456898 0.181501 50 3
-0.202007 3.331414 -0.64875102 23 4
-0.21139599 3.4862549 0.30556801 21 5
-0.202776 3.3440969 -0.530626 6 6
-0.20377401 3.360544 -0.41338101 4 8
-0.205246 3.38483 -0.29667801 27 10
-0.20574801 3.3931029 -0.17815199 26 12
-0.20708799 3.415206 -0.059721999 21 14
-0.208783 3.44315 0.060210999 23 1
-0.209737 3.4588909 0.18160599 47 3
-0.202007 3.331414 -0.64875102 23 4
-0.21127599 3.484267 0.30539399 20 5
-0.203972 3.3638141 -0.53375399 39 6
-0.204494 3.3724329 -0.41484299 4 8
-0.204523 3.3728969 -0.295632 24 10
-0.20599 3.39709 -0.178361 26 12
-0.206604 3.407222 -0.059583001 21 14
-0.18375 3.4485819 0.060281001 23 1
-0.17737199 3.3288839 -0.64798701 23 4
-0.18477499 3.4678161 0.30382499 18 5
-0.178362 3.347466 -0.53093898 30 6
-0.179873 3.375823 -0.41508701 4 8
-0.180005 3.3782849 -0.29598099 26 10
-0.18150701 3.406486 -0.17878 24 12
-0.18226101 3.4206259 -0.059792001 23 14
-0.18332499 3.4405949 0.060141001 23 1
-0.184802 3.4683139 0.182024 3 3
-0.17737199 3.3288839 -0.64798701 23 4
-0.185941 3.489701 0.305742 20 5
-0.178468 3.349438 -0.53125101 29 6
-0.180507 3.387717 -0.416549 5 8
-0.180005 3.3782849 -0.29598099 26 10
-0.18150701 3.406486 -0.17878 26 12
-0.18226101 3.4206259 -0.059792001 22 14
-0.16004001 3.4577711 0.060419999 22 1
-0.16123 3.483485 0.18275701 3 3
-0.15458199 3.3398471 -0.64989501 22 4
-0.16129801 3.4849429 0.30521899 18 5
-0.15508001 3.3506031 -0.53125101 28 6
-0.15648501 3.3809631 -0.41557401 4 8
-0.1566 3.38344 -0.29633 26 10
-0.157352 3.3996899 -0.178361 26 12
-0.15856101 3.4258101 -0.059861999 21 14
-0.16004001 3.4577711 0.060419999 22 1
-0.160584 3.4695189 0.182024 5 3
-0.154763 3.3437691 -0.65065902 22 4
-0.16175801 3.494895 0.30609101 20 5
-0.15584201 3.3670821 -0.41386801 4 8
-0.157337 3.3993621 -0.29772401 24 10
-0.157721 3.40767 -0.17878 24 12
-0.15856101 3.4258101 -0.059861999 21 14
-0.137262 3.4627531 0.060490001 20 1
-0.13242801 3.3407991 -0.64989501 22 4
-0.134106 3.3831389 -0.53625703 5 6
-0.134608 3.3958111 -0.417281 8 8
-0.134472 3.3923669 -0.29702699 24 10
-0.13527501 3.4126329 -0.17898899 26 12
-0.135995 3.430783 -0.059932001 21 14
-0.13710301 3.458756 0.060419999 23 1
-0.13812301 3.484478 0.18275701 18 3
-0.13242801 3.3407991 -0.64989501 22 4
-0.138181 3.4859359 0.30521899 17 5
-0.133637 3.3712959 -0.53438002 18 6
-0.13437299 3.3898611 -0.416549 20 8
-0.134472 3.3923669 -0.29702699 26 10
-0.135433 3.416625 -0.179198 26 12
-0.13583601 3.4267869 -0.059861999 21 14
-0.111875 3.463666 0.060490001 22 1
-0.112706 3.4893889 0.18296701 18 3
-0.108315 3.3534529 -0.65218502 22 4
-0.112881 3.4948211 0.30591699 18 5
-0.108665 3.3642869 -0.53312898 21 6
-0.109648 3.394722 -0.41703701 20 8
-0.109537 3.3912699 -0.29685199 23 10
-0.110256 3.413533 -0.17898899 24 12
-0.110971 3.4356849 -0.060001001 21 14
-0.111875 3.463666 0.060490001 22 1
-0.112835 3.493382 0.183176 18 3
-0.108442 3.3573771 -0.65294802 22 4
-0.108729 3.366262 -0.53344202 21 6
-0.109648 3.394722 -0.41703701 20 8
-0.109858 3.401227 -0.29772401 24 10
-0.110062 3.4075439 -0.178675 24 12
-0.111488 3.451674 -0.060281001 22 14
-0.088147998 3.4823539 0.060803998 12 1
-0.084951997 3.3560901 -0.65256703 21 4
-0.085477002 3.3768129 -0.53500599 22 6
-0.086048 3.399374 -0.41752401 19 8
-0.086566001 3.419837 -0.29929301 23 10
-0.086778 3.428196 -0.179722 17 12
-0.088097997 3.480355 -0.060768999 5 14
-0.084903002 3.3541269 -0.65218502 19 4
-0.085127003 3.3629889 -0.53281599 6 6
0.20137601 3.4609549 -0.800376 4 2
0.249678 3.4578061 -0.800376 4 2
0.27427399 3.461807 -0.80172598 4 2
0.27489001 3.4695771 -0.80352497 4 2
0.29944 3.471457 -0.804425 5 2
0.29960701 3.473398 -0.80487502 5 2
0.322763 3.4595799 -0.80217499 5 2
0.32384899 3.4712219 -0.80487502 6 2
0.34710199 3.459182 -0.802625 6 2
0.347491 3.4630589 -0.80352497 6 2
0.37145099 3.458612 -0.80307502 5 2
0.37228301 3.466362 -0.80487502 5 2
0.39498401 3.456003 -0.80307502 5 2
0.396754 3.4714921 -0.806674 6 2
0.423466 3.48404 -0.810274 6 2
0.422526 3.4763019 -0.808474 6 2
0.44568199 3.46948 -0.80757397 7 2
0.44468799 3.4617491 -0.80577499 9 2
0.47364199 3.4893739 -0.81297302 9 2
0.47416699 3.493237 -0.81387299 9 2
0.497933 3.489928 -0.81387299 9 2
0.49628201 3.478353 -0.81117302 9 2
-1.594061 3.2741079 0.975748 3 15
-1.4989589 3.078773 -0.42044899 1 8
-1.456561 3.045531 -0.534693 1 6
-1.479141 3.0927451 -0.420937 1 8
-1.446775 3.02507 -0.65180302 4 4
-1.4611551 3.0551369 -0.41581801 7 8
-1.4339679 3.0528669 -0.65561998 7 4
-1.4293849 3.0431099 -0.53250301 22 6
-1.441479 3.068857 -0.41630599 24 8
-1.464749 3.1183989 -0.18055899 8 12
-1.4801379 3.1511619 0.060768999 5 1
-1.422282 3.0279889 -0.65027702 9 4
-1.430225 3.044898 -0.53281599 23 6
-1.436415 3.0580771 -0.41484299 22 8
-1.445083 3.0765309 -0.29737499 30 10
-1.4562581 3.1003211 -0.17951199 22 12
-1.459734 3.107723 -0.059932001 22 14
-1.450565 3.145076 0.060454998 19 1
-1.454653 3.153939 0.182024 22 3
-1.401108 3.0378439 -0.65027702 11 4
-1.458617 3.162533 0.30469599 12 5
-1.40645 3.049427 -0.53187698 22 6
-1.4175251 3.0734379 -0.41557401 23 8
-1.414391 3.066644 -0.29545799 27 10
-1.433741 3.108598 -0.179408 30 12
-1.434653 3.110574 -0.059792001 22 14
-1.44889 3.141444 0.060385 23 1
-1.457999 3.1611941 0.18244299 21 3
-1.401108 3.0378439 -0.65027702 11 4
-1.458617 3.162533 0.30469599 21 5
-1.403141 3.0422521 -0.530626 16 6
-1.414199 3.0662279 -0.41460001 20 8
-1.414391 3.066644 -0.29545799 27 10
-1.427886 3.0959029 -0.178675 30 12
-1.431303 3.1033111 -0.059652001 23 14
-1.425274 3.1478391 0.060316 24 1
-1.430952 3.1603789 0.181815 22 3
-1.383105 3.0547061 -0.65180302 11 4
-1.438146 3.1762691 0.30504501 21 5
-1.3786089 3.044775 -0.529374 5 6
-1.397056 3.0855179 -0.29633 30 10
-1.4012949 3.0948789 -0.178047 30 12
-1.417026 3.1296229 -0.059966002 26 14
-1.4227999 3.142374 0.060210999 26 1
-1.427657 3.153101 0.18139599 21 3
-1.380676 3.049341 -0.65065902 12 4
-1.437324 3.174454 0.30487099 22 5
-1.383497 3.055572 -0.53125101 15 6
-1.3862081 3.061559 -0.41264999 4 8
-1.400344 3.092778 -0.29702699 28 10
-1.4012949 3.0948789 -0.178047 30 12
-1.408778 3.1114061 -0.059617002 23 14
-1.404075 3.1595399 0.060350001 26 1
-1.410475 3.1739421 0.182024 5 3
-1.3561651 3.051729 -0.64913201 14 4
-1.4127001 3.1789491 0.30434799 21 5
-1.36133 3.0633521 -0.53093898 50 6
-1.363995 3.0693481 -0.412406 4 8
-1.373863 3.0915551 -0.29598099 33 10
-1.384521 3.1155379 -0.178675 34 12
-1.387022 3.121165 -0.059617002 23 14
-1.402451 3.155885 0.060281001 26 1
-1.4039871 3.1593411 0.181187 5 3
-1.353773 3.0463469 -0.64798701 16 4
-1.407846 3.168025 0.30330199 21 5
-1.356516 3.052521 -0.52906102 49 6
-1.373668 3.091116 -0.41533101 4 8
-1.369009 3.080631 -0.29493499 30 10
-1.3820879 3.1100619 -0.178361 28 12
-1.384586 3.1156831 -0.059512999 25 14
-1.3739901 3.1509349 0.060001001 27 1
-1.3842911 3.1745579 0.181501 5 3
-1.335611 3.062922 -0.64951402 18 4
-1.385694 3.1777761 0.30330199 18 5
-1.348087 3.0915329 -0.414112 4 8
-1.349061 3.093766 -0.295284 28 10
-1.358745 3.115973 -0.17815199 28 12
-1.366797 3.134439 -0.059687 27 14
-1.3739901 3.1509349 0.060001001 24 1
-1.382694 3.170897 0.181292 5 3
-1.331688 3.0539241 -0.64760602 19 4
-1.387287 3.181428 0.30365101 21 5
-1.335173 3.0619161 -0.52906102 12 6
-1.3465 3.087894 -0.413625 4 8
-1.350654 3.0974181 -0.295632 33 10
-1.353955 3.1049891 -0.177524 27 12
-1.366797 3.134439 -0.059687 25 14
-1.351959 3.1604509 0.060001001 26 1
-1.356596 3.1712911 0.180768 5 3
-1.311107 3.0649509 -0.64798701 21 4
-1.368961 3.2001951 0.30452201 21 5
-1.32491 3.097219 -0.413625 4 8
-1.330564 3.110436 -0.29598099 31 10
-1.3338161 3.1180379 -0.177733 33 12
-1.3448811 3.143904 -0.059687 25 14
-1.353532 3.1641281 0.060070999 26 1
-1.3550251 3.167618 0.18055899 5 3
-1.308018 3.0577309 -0.64646101 22 4
-1.365826 3.192868 0.30382499 22 5
-1.313764 3.0711629 -0.52906102 64 6
-1.31476 3.0734921 -0.410456 4 8
-1.3258621 3.0994451 -0.29493499 30 10
-1.335387 3.121711 -0.17794199 28 12
-1.337016 3.125519 -0.059338 25 14
-1.328757 3.1702759 0.060001001 24 1
-1.337175 3.1903591 0.181292 5 3
-1.287088 3.070858 -0.64722401 24 4
-1.338536 3.1936059 0.302953 20 5
-1.292745 3.0843539 -0.52968699 61 6
-1.29987 3.1013551 -0.412893 4 8
-1.302338 3.1072431 -0.294761 37 10
-1.312469 3.1314149 -0.17794199 28 12
-1.317162 3.142612 -0.059478 25 14
-1.325665 3.162899 0.059861999 28 1
-1.337175 3.1903591 0.181292 5 3
-1.284811 3.0654261 -0.646079 25 4
-1.336225 3.1880929 0.30243 21 5
-1.28969 3.0770669 -0.52843601 60 6
-1.300638 3.1031859 -0.41313699 4 8
-1.2984869 3.0980549 -0.29388899 33 10
-1.310925 3.1277311 -0.177733 28 12
-1.317162 3.142612 -0.059478 25 14
-1.303898 3.1697719 0.059827 27 1
-1.265946 3.0775111 -0.64684302 25 4
-1.317325 3.2024131 0.302953 20 5
-1.267751 3.0818989 -0.52780998 61 6
-1.2777621 3.106236 -0.412406 4 8
-1.282459 3.1176541 -0.29493499 35 10
-1.285594 3.1252739 -0.17710499 28 12
-1.297812 3.1549771 -0.059548002 25 14
-1.306941 3.1771691 0.059966002 27 1
-1.307628 3.1788399 0.18014 50 3
-1.2651989 3.075696 -0.64646101 31 4
-1.319599 3.2079411 0.30347601 21 5
-1.269254 3.085552 -0.52843601 61 6
-1.273231 3.095221 -0.410943 4 8
-1.282459 3.1176541 -0.29493499 34 10
-1.2840739 3.1215799 -0.17689601 28 12
-1.294769 3.1475799 -0.059408002 25 14
-1.283233 3.182507 0.059897002 26 1
-1.286898 3.191596 0.18035001 55 3
-1.238557 3.071708 -0.64379001 29 4
-1.294191 3.2096839 0.30277899 21 5
-1.249159 3.098002 -0.52906102 64 6
-1.250107 3.100352 -0.410456 4 8
-1.257682 3.1191399 -0.294238 33 10
-1.265238 3.1378779 -0.177314 28 12
-1.2697721 3.1491239 -0.059268001 25 14
-1.282485 3.1806519 0.059861999 27 1
-1.289885 3.1990049 0.180768 52 3
-1.240759 3.0771699 -0.644934 34 4
-1.292701 3.2059879 0.30243 23 5
-1.246204 3.0906739 -0.52780998 64 6
-1.253819 3.1095569 -0.41167501 7 8
-1.251722 3.104357 -0.29284301 35 10
-1.265238 3.1378779 -0.177314 28 12
-1.2697721 3.1491239 -0.059268001 25 14
-1.257309 3.1820891 0.059721999 27 1
-1.266053 3.204217 0.18055899 25 3
-1.219247 3.085757 -0.644934 34 4
-1.268823 3.2112291 0.302082 22 5
-1.217338 3.0809281 -0.52468097 29 6
-1.2313499 3.116389 -0.41143101 5 8
-1.231483 3.1167271 -0.293192 35 10
-1.2433 3.1466341 -0.177314 28 12
-1.249226 3.1616321 -0.059338 25 14
-1.257309 3.1820891 0.059721999 28 1
-1.219968 3.0875831 -0.645316 36 4
-1.270287 3.2149351 0.30243 22 5
-1.221694 3.0919499 -0.52655798 6 6
-1.234997 3.1256199 -0.41264999 7 8
-1.2336791 3.1222849 -0.293715 37 10
-1.238897 3.135489 -0.176686 28 12
-1.249226 3.1616321 -0.059338 26 14
-1.235063 3.190789 0.059721999 26 1
-1.240047 3.203665 0.18003599 5 3
-1.196965 3.0923631 -0.64455301 38 4
-1.250689 3.2311571 0.303128 23 5
-1.201504 3.1040881 -0.52718401 15 6
-1.209563 3.1249089 -0.41143101 12 8
-1.21329 3.1345379 -0.294063 37 10
-1.216977 3.144062 -0.176686 28 12
-1.227123 3.1702759 -0.059338 25 14
-1.238673 3.200114 0.059897002 30 1
-1.242931 3.2111149 0.180454 5 3
-1.196257 3.0905321 -0.644171 40 4
-1.247812 3.2237251 0.30243 22 5
-1.200078 3.100404 -0.52655798 33 6
-1.208847 3.1230581 -0.41118699 30 8
-1.212571 3.1326799 -0.29388899 35 10
-1.216977 3.144062 -0.176686 28 12
-1.222792 3.159086 -0.059129 25 14
-1.212049 3.197464 0.059687 27 1
-1.2204829 3.2197139 0.180454 8 3
-1.174652 3.0988081 -0.644171 40 4
-1.221038 3.221179 0.30138499 23 5
-1.178404 3.108706 -0.52655798 37 6
-1.1891249 3.1369901 -0.41191801 37 8
-1.185022 3.1261649 -0.29249501 33 10
-1.196413 3.1562171 -0.17689601 30 12
-1.19929 3.163806 -0.059059002 25 14
-1.209213 3.1899841 0.059548002 26 1
-1.221191 3.2215819 0.18055899 21 3
-1.174652 3.0988081 -0.644171 40 4
-1.2196259 3.217453 0.301036 25 5
-1.174903 3.0994711 -0.52499402 39 6
-1.184903 3.1258531 -0.410456 37 8
-1.185022 3.1261649 -0.29249501 35 10
-1.1957051 3.1543491 -0.176791 34 12
-1.200708 3.167546 -0.059129 25 14
-1.1870511 3.2004311 0.059583001 27 1
-1.193939 3.219003 0.179931 22 3
-1.153813 3.110816 -0.644934 40 4
-1.199342 3.2335711 0.30173299 23 5
-1.15338 3.1096511 -0.525307 38 6
-1.159743 3.126807 -0.40948099 32 8
-1.166085 3.1439049 -0.29336599 38 10
-1.166852 3.1459711 -0.17584901 28 12
-1.180792 3.183557 -0.059268001 26 14
-1.188442 3.20418 0.059652001 27 1
-1.193939 3.219003 0.179931 23 3
-1.148351 3.0960901 -0.64188099 41 4
-1.2007281 3.2373071 0.302082 23 5
-1.152693 3.1077991 -0.52499402 39 6
-1.157673 3.121223 -0.40875 34 8
-1.1674711 3.1476409 -0.293715 37 10
-1.168241 3.1497171 -0.17605799 30 12
-1.179401 3.1798069 -0.059199002 25 14
-1.167969 3.215955 0.059721999 28 1
-1.169273 3.2195461 0.17951199 23 3
-1.122558 3.0909181 -0.63920999 42 4
-1.177305 3.2416589 0.30173299 25 5
-1.132861 3.119287 -0.52561998 41 6
-1.134367 3.1234331 -0.40801901 38 8
-1.141938 3.144279 -0.292669 37 10
-1.148138 3.16135 -0.176268 30 12
-1.153634 3.1764841 -0.058989 26 14
-1.163873 3.2046771 0.059512999 27 1
-1.172001 3.2270551 0.179931 23 3
-1.123899 3.094609 -0.63997298 45 4
-1.171864 3.2266779 0.30033901 21 5
-1.130164 3.11186 -0.52436799 39 6
-1.141144 3.142092 -0.410456 37 8
-1.139217 3.1367869 -0.29197201 39 10
-1.151547 3.1707361 -0.176791 34 12
-1.156365 3.1840019 -0.059129 25 14
-1.136898 3.201617 0.059303001 26 1
-1.1495481 3.237241 0.18003599 25 3
-1.101727 3.102571 -0.63997298 45 4
-1.148746 3.2349801 0.30033901 23 5
-1.106547 3.1161439 -0.52374297 39 6
-1.116639 3.1445651 -0.40972501 29 8
-1.118077 3.1486139 -0.29232001 37 10
-1.126156 3.171366 -0.17637201 35 12
-1.133552 3.1921949 -0.059129 25 14
-1.144201 3.222183 0.179198 22 3
-1.105669 3.113672 -0.642263 48 4
-1.151412 3.2424901 0.301036 23 5
-1.107208 3.118005 -0.524055 42 6
-1.116743 3.1448591 -0.29197201 13 10
-1.124819 3.1676021 -0.176163 34 12
-1.134891 3.1959629 -0.059199002 25 14
-1.122242 3.229897 0.179198 22 3
-1.083804 3.119271 -0.64188099 50 4
-1.13193 3.257781 0.30173299 23 5
-1.085958 3.1254699 -0.524055 42 6
-1.103232 3.175185 -0.176163 31 12
-1.111797 3.199837 -0.059129 25 14
-1.122242 3.229897 0.179198 23 3
-1.079294 3.1062901 -0.63920999 48 4
-1.1280071 3.246489 0.30068699 23 5
-1.0892 3.134799 -0.52561998 41 6
-1.103232 3.175185 -0.176163 34 12
-1.109172 3.192281 -0.058989 26 14
-1.10095 3.241436 0.179408 23 3
-1.059476 3.1193249 -0.64035499 54 4
-1.104033 3.2505109 0.30033901 22 5
-1.0641119 3.1329751 -0.524055 42 6
-1.083608 3.1903751 -0.17658199 31 12
-1.088145 3.203733 -0.059059002 23 14
-1.102235 3.245218 0.179617 22 3
-1.060107 3.1211851 -0.640737 48 4
-1.102751 3.246738 0.29999 22 5
-1.0628411 3.1292341 -0.52342999 45 6
-1.081038 3.1828101 -0.176163 34 12
-1.087502 3.2018399 -0.059023999 17 14
-1.0784169 3.2532101 0.179617 25 3
-1.036582 3.127008 -0.64035499 51 4
-1.082684 3.266082 0.301036 22 5
-1.041117 3.140691 -0.524055 49 6
-1.055164 3.1830649 -0.175744 31 12
-1.0733891 3.238044 0.17878 23 3
-1.036582 3.127008 -0.64035499 51 4
-1.083937 3.2698641 0.30138499 23 5
-1.041117 3.140691 -0.524055 48 6
-1.055164 3.1830649 -0.175744 31 12
-1.053122 3.2488921 0.17898899 22 3
-1.014609 3.130079 -0.63959199 50 4
-1.05977 3.2693999 0.30068699 21 5
-1.022701 3.1550429 -0.525307 49 6
-1.03403 3.1899941 -0.175744 31 12
-1.058665 3.265991 0.179931 23 3
-1.0133981 3.126344 -0.63882899 51 4
-1.0585411 3.265609 0.30033901 22 5
-1.020265 3.147527 -0.524055 48 6
-1.036494 3.197593 -0.176163 38 12
-1.032825 3.263782 0.179408 25 3
-0.99273199 3.1370859 -0.63959199 54 4
-1.035717 3.2729199 0.30033901 22 5
-0.99469 3.1432731 -0.52217799 52 6
-1.012337 3.199039 -0.17584901 41 12
-1.0304151 3.256165 0.17898899 21 3
-0.99273199 3.1370859 -0.63959199 56 4
-1.036919 3.2767191 0.30068699 22 5
-0.99469 3.1432731 -0.52217799 52 6
-1.01053 3.193326 -0.17553499 35 12
-1.008836 3.267096 0.179198 25 3
-0.97196501 3.147692 -0.64035499 56 4
-1.0151941 3.2876849 0.301036 23 5
-0.97505301 3.157691 -0.52342999 51 6
-0.98821098 3.200304 -0.17553499 35 12
-1.0053 3.255646 0.17857 25 3
-0.969069 3.1383131 -0.63844699 58 4
-1.011667 3.276263 0.29999 22 5
-0.97738397 3.165241 -0.52468097 51 6
-0.98997903 3.206028 -0.17584901 42 12
-0.98427999 3.270406 0.17898899 23 3
-0.94375801 3.135767 -0.63653898 57 4
-0.98934501 3.2872341 0.30033901 22 5
-0.95015502 3.157021 -0.52217799 55 6
-0.96758699 3.2149429 -0.175953 38 12
-0.98543102 3.274231 0.179198 22 3
-0.94489002 3.1395271 -0.63730198 60 4
-0.98819602 3.2834179 0.29999 22 5
-0.947878 3.1494541 -0.52092701 56 6
-0.96701199 3.2130301 -0.17584901 42 12
-0.97798902 3.2495019 -0.059232999 6 14
-0.96368402 3.282779 0.17930301 25 3
-0.92405099 3.1477699 -0.63768399 51 4
-0.964701 3.2862461 0.29964101 22 5
-0.927531 3.1596241 -0.52155298 56 6
-0.94286901 3.2118731 -0.17543 42 12
-0.95021498 3.236897 -0.058883999 22 14
-0.959746 3.2693651 0.17857 25 3
-0.92515701 3.1515369 -0.63844699 63 4
-0.96919101 3.3015389 0.301036 23 5
-0.927531 3.1596241 -0.52155298 56 6
-0.94511902 3.219538 -0.17584901 41 12
-0.95021498 3.236897 -0.058883999 30 14
-0.93580103 3.2721441 0.178361 26 3
-0.89935499 3.144706 -0.63577598 52 4
-0.94392902 3.3005619 0.30033901 23 5
-0.905451 3.1660221 -0.52155298 58 6
-0.92475402 3.2335169 -0.294238 1 10
-0.92207199 3.224138 -0.175744 38 12
-0.92704499 3.241529 -0.058850002 26 14
-0.937998 3.279825 0.17878 23 3
-0.90043497 3.1484809 -0.63653898 66 4
-0.94064099 3.2890689 0.29929301 23 5
-0.90653801 3.169821 -0.52217799 56 6
-0.92481798 3.2337389 -0.176268 48 12
-0.925946 3.237684 -0.05878 28 14
-0.91829199 3.297838 0.179408 23 3
-0.88159198 3.166038 -0.63882899 69 4
-0.91979402 3.3032329 0.29999 23 5
-0.88226599 3.1684599 -0.52092701 56 6
-0.89299601 3.2069919 -0.40875 37 8
-0.89414001 3.211103 -0.291623 56 10
-0.90007597 3.23242 -0.17584901 42 12
-0.90439302 3.2479219 -0.058850002 25 14
-0.91297501 3.278744 0.059408002 16 1
-0.91400599 3.2824459 0.17857 23 3
-0.88106501 3.1641469 -0.63844699 63 4
-0.91979402 3.3032329 0.29999 21 5
-0.88332599 3.172266 -0.52155298 58 6
-0.894593 3.212729 -0.40948099 50 8
-0.89414001 3.211103 -0.291623 53 10
-0.89793301 3.2247241 -0.17543 42 12
-0.90761101 3.25948 -0.059059002 26 14
-0.89058602 3.286968 0.059443001 30 1
-0.88897902 3.2810359 0.17815199 23 3
-0.85792702 3.166431 -0.63768399 63 4
-0.89983702 3.3211119 0.301036 21 5
-0.86270797 3.1840761 -0.52249098 60 6
-0.87006599 3.2112319 -0.40850601 59 8
-0.87274301 3.221113 -0.29197201 48 10
-0.87696499 3.236697 -0.175744 49 12
-0.88169599 3.2541561 -0.058850002 26 14
-0.89110899 3.288898 0.059478 30 1
-0.89002299 3.2848909 0.178361 25 3
-0.85484701 3.155061 -0.63539398 56 4
-0.897753 3.3134201 0.30033901 22 5
-0.865291 3.193609 -0.524055 66 6
-0.86487401 3.1920719 -0.40606901 57 8
-0.871701 3.217267 -0.291623 50 10
-0.87696499 3.236697 -0.175744 44 12
-0.87855798 3.2425759 -0.058639999 30 14
-0.86405098 3.2795689 0.059199002 27 1
-0.86706901 3.2910249 0.178361 25 3
-0.83429998 3.1666479 -0.63653898 58 4
-0.87256902 3.3118999 0.29964101 23 5
-0.841968 3.195751 -0.52342999 61 6
-0.84408599 3.2037909 -0.4068 52 8
-0.846681 3.2136409 -0.29075199 60 10
-0.85485703 3.2446721 -0.17584901 48 12
-0.85895598 3.260232 -0.058850002 27 14
-0.86303198 3.275702 0.059129 27 1
-0.87012202 3.302613 0.17898899 26 3
-0.83429998 3.1666479 -0.63653898 58 4
-0.87155402 3.3080471 0.29929301 22 5
-0.83894801 3.1842899 -0.52155298 64 6
-0.84813201 3.2191479 -0.40875 60 8
-0.846681 3.2136409 -0.29075199 53 10
-0.85282099 3.2369471 -0.17543 45 12
